ply
format ascii 1.0
comment Created by Open3D
element vertex 2352
property double x
property double y
property double z
end_header
-98 -17.9436 495.789
-98 23.9247 445.914
-98 77.9381 462.898
-98 100.123 450.097
-98 -38.15 442.913
-98 80.8381 459.079
-98 7.98428 456.926
-98 11.9153 461.018
-98 -32.2795 456.109
-17.4566 1.0794 452.012
-98 14.041 463.844
-98 -36.9846 446.082
-98 -0.00793394 467.825
-98 12.2511 449.738
-98 100.843 452.869
-98 6.89342 445.909
-98 67.6548 446.922
-98 37.9574 454.137
-98 105.95 459.919
-98 -50.7317 477.882
-98 -52.9242 445.029
-45.7699 -62.0102 490
-42.784 111.95 490
-44.0126 64.1175 490
-45.1629 0.864237 490
-98 73.0102 487.939
-98 -38.1443 470.9
-98 67.951 483.041
-98 -57.8451 457.946
47 -48.0262 497.072
-98 -27.947 441.115
-98 -15.0249 483.034
-98 97.2339 446.951
-98 103.193 481.022
-98 41.8322 469.02
-98 51.1099 464.03
-98 -11.9889 466.991
-98 0.00320428 486.917
-98 90.8764 443.423
-98 -7.12788 488.753
-98 66.7386 471.946
-98 -58.9498 446.055
-98 -53.9534 474.979
-98 88.855 476.188
-98 -40.9928 473.086
47 -41.2505 500.062
-98 -28.2006 478.938
-98 65.1069 442.963
-98 -0.0232133 482.982
-98 79.0434 486.113
-98 73.0207 475.192
-98 8.70993 480.776
-98 -9.96158 487.117
-98 -68.0963 460.247
-98 45.9468 504.076
-98 45.0407 440.708
-98 -53.0545 470.016
-98 -28.8655 449.956
-98 -53.92 485.877
-98 80.1376 473.135
-98 68.1979 470.229
-98 103.993 444.939
-98 32.1347 469.246
-98 33.2159 459.997
-98 -13.9491 495.103
-98 81.7454 472.245
-98 87.9984 471.076
-98 -53.3044 485.173
-98 -59.9206 486.127
-98 12.0017 475.893
-98 51.7981 468.187
-98 49.9329 483.866
-98 -46.9077 487.073
-98 -20.954 451.966
-98 9.25932 479.983
-98 7.07788 447.096
-98 -16.7305 479.119
-98 103.742 448.865
-98 -41.2766 490.986
-98 -20.9801 479.319
-98 -6.97166 456.944
-98 95.9197 447.054
-98 15.774 488.851
-98 -0.976078 468.179
-98 -35.9727 475.991
-98 27.0309 466.167
-98 -37.8216 447.064
-98 -24.0332 471.968
-98 119.308 466.961
-98 -10.0479 488.072
-98 20.8981 453.221
-98 -15.1353 457.015
-98 -29.5114 452.868
-98 110.728 469.005
-98 61.1288 486.181
-98 -45.0167 472.002
-98 0.789529 448.841
-98 115.943 451.23
-98 -47.8605 449.888
-98 38.7466 463.96
-98 90.9444 464.136
-98 89.237 456.988
-98 119.08 458.991
-98 -61.0379 475.064
-98 -33.963 444.092
-98 -27.7398 482.883
-98 72.0419 482.952
-98 -35.0549 443.229
-98 69.2197 453.989
-98 28.8116 474.763
-98 27.1498 463.146
-98 -17.3103 456.507
-98 18.2219 492.015
-98 111.013 455.026
-98 71.1229 465.036
47 -59.6942 495.967
-98 -26.9042 454.019
47 -40.0935 500.1
-98 -22.672 481.992
-98 -6.03857 456.037
-98 -19.1061 491.008
-98 -13.8939 492.048
-98 63.0209 441.777
-98 47.9837 458.104
-98 -31.8298 486.992
-98 -37.0166 448.004
-98 -60.0617 501.948
-58.8228 39.9956 490
-58.025 103.105 490
-59.8872 -31.8966 490
-98 93.1538 474.068
-98 85.7916 447.005
-98 59.9244 477.86
-98 92.2539 454.549
-98 63.0701 482.999
-98 32.9271 459.033
-98 -49.0152 477.041
-98 -13.9761 468.99
-18.1099 -41.0376 490
-16.9041 26.2855 490
-16.0766 89.1617 490
-98 16.2558 454.052
-98 16.0785 441.189
-50.9546 94.98 490
-53.0875 -35.7942 490
-52.0273 28.8229 490
-98 -53.1929 455.061
-98 113.913 458.005
-98 23.1349 449.961
-17.457 -1.07277 458.114
-98 7.94878 470.82
-98 -50.044 453.062
-98 -34.0738 494.967
-98 24.8657 449.203
-98 45.0762 475.008
47 -34.9851 499.126
-98 -27.1156 441.95
-98 46.2277 482.98
-98 89.0693 443.86
-98 35.048 482.766
-75.0894 -20.9245 490
-73.9173 43.8814 490
-73.1556 105.034 490
-98 74.1294 460.987
-98 12.8207 487.819
-58.0866 59.3525 490
-58.8063 -4.22314 490
-57.0938 122.037 490
-98 -46.9821 458.777
-98 95.9818 467.864
-98 95.1226 444.092
-98 -5.15741 480.979
-98 51.8741 453.841
-98 33.9041 474.836
-98 -65.5176 475.923
-98 1.09901 457.009
-98 115.961 442.964
-98 -35.1353 473.908
-98 -42.1091 459.879
-98 110.654 444.691
-98 -17.7369 473.869
-98 -38.9402 474.11
-98 64.0269 471.107
-98 -3.09591 480.998
-98 20.9497 465.825
-98 28.8484 456.128
-98 -55.9376 444.959
-98 7.05041 489.396
-98 26.9024 474.897
-98 106.738 466.395
-98 -34.1201 472.956
-98 -50.1129 486.043
-98 69.9878 446.076
-98 67.8783 450.073
-98 -10.4265 482.42
-98 111.079 474.884
-98 15.976 461.401
-98 75.9996 481.778
-98 -36.9329 444.973
-98 -6.09277 470.205
-98 34.053 465.005
-98 -1.01401 469.945
-98 -13.0276 468.991
-98 -43.1849 467.845
-98 15.0548 472.174
-98 -68.0317 473.026
-98 71.8628 481.995
-98 -65.7398 478.59
-98 103.731 450.201
-98 -22.9799 464.816
-98 -35.8699 464.031
-98 -35.8536 496.072
-98 -45.1484 499.271
-98 -66.8537 481.378
-98 66.2526 474.973
-98 -30.8112 492.915
-98 8.03135 448.001
-58.2855 60.8217 490
-58.9499 -2.26991 490
-98 75.149 482.162
-98 -45.9167 477.864
-98 52.0494 464.096
-98 62.1189 465.026
-98 69.203 472.843
-98 67.9186 472.212
-98 78.7175 475.977
-98 -35.9526 459.956
-98 50.9448 468.028
-98 102.962 481.695
-98 30.7041 457.971
-98 -58.2513 483.936
-98 -31.0836 497.723
-98 18.0151 494.001
-98 26.0298 453.858
-98 50.8231 478.13
-98 31.1007 466.092
-98 69.9898 444.115
-98 27.0214 478.143
-98 44.9836 482.035
-98 -7.91982 460
-98 -65.0706 448.328
-98 30.9619 469.846
-98 79.0478 446.808
-98 -49.9836 470.022
-98 89.8533 467.915
-98 -44.0867 499.98
-98 -50.0823 471.682
-98 -36.7754 466.065
-98 -31.9458 469.041
-98 79.0667 484.996
-98 -27.9593 485.159
-98 52.1463 443.049
-98 38.1151 443.034
-98 -13.7903 465.128
-98 -53.8756 454.075
-98 80.89 477.813
-98 51.1662 459.735
-98 -12.9557 463.939
-98 115.916 484.11
-98 -15.9641 497.126
-98 10.8986 466.044
-98 -31.9247 471.142
-98 44.9587 453.971
-98 -41.0162 445.997
-98 97.1125 469.924
-98 36.9969 458.89
-98 -56.9847 499.928
-98 -64.881 475.849
-98 3.23214 443.806
-98 39.008 482.755
-98 95.0158 467.868
-98 -41.9751 472.926
-98 17.6245 451.057
-98 -45.8292 471.976
-98 -55.097 440.954
-98 1.13966 494.19
-98 99.0668 474.787
-98 -4.10981 478.033
-98 68.8388 445.067
-98 -55.8823 455.96
-98 33.9838 487.284
-98 -67.1676 479.015
-98 -53.9957 462.291
-98 45.0305 441.765
-98 68.9611 443.869
-98 -12.0673 484.089
-98 31.0327 471.81
-98 -57.143 473.087
-98 23.0322 485.901
-98 -11.2994 441.874
-98 118.025 473.14
-98 107.215 441.842
-98 -34.0966 454.869
-98 -32.1674 498.936
-98 -32.8956 444.988
-98 110.104 466.929
47 -48.7657 501.802
-98 -19.9462 469.164
-98 24.7077 459.907
-98 60.9303 480.283
-98 119.931 440.94
-98 96.9783 458.96
-98 69.3347 482.079
-98 65.3994 455.342
-98 75.8363 478.049
-98 -1.02508 454.975
-18.2123 -55.9298 490
-15.8644 74.0541 490
-98 4.99621 466.948
-98 -60.083 447.964
-98 106.406 478.685
-98 98.9161 472.086
46.9234 -35.0067 504.837
-98 -25.9824 453.195
-98 -47.9206 473.025
-98 -23.0501 487.097
47 -42.8962 495.149
-98 -18.0227 495.041
-98 7.18023 440.99
-98 -21.9125 452.89
-98 19.7994 441.048
-98 52.0159 499.025
-98 74.9045 463.128
-98 109.106 456.891
-98 -18.7468 460.993
-98 72.1657 462.112
-98 -46.8521 487.802
-98 22.7307 493.245
-98 31.862 473.002
-98 12.0586 493.733
-98 20.1504 457.006
-98 79.0515 453.999
-98 22.0747 467.945
-98 73.8228 471.031
-98 2.05819 491.107
-98 116.101 471.934
-98 11.7759 458.912
-98 32.0638 448.023
-98 -26.7729 482.878
-98 48.1807 460.91
-98 41.1254 489.915
-98 121.937 444.948
-17.2245 3.03529 466.887
-98 16.7977 446.079
-98 79.042 471.977
-98 96.9198 445.919
-98 49.0462 473.908
-98 -46.9976 488.796
-98 3.24231 484.183
-98 80.7524 479.831
-98 -16.0301 495.027
-98 -0.0403159 474.015
-98 98.7263 441.878
-98 -21.916 463.016
-98 78.8654 463.091
-98 2.01589 457.008
-98 11.9053 492.921
-98 -9.00768 457.943
47 -40.1917 503.586
-98 -22.9717 445.825
-83 122.937 443.901
-98 96.0928 474.023
-98 124.964 457.253
-98 37.2661 446.977
-98 -7.16154 466.837
-98 112.8 476.989
47 -41.4292 504.32
-98 -27.8268 450.962
-98 74.9892 467.93
-98 10.9868 462.777
-98 102.149 471.921
-98 -59.919 461.909
-98 50.0883 479.828
-98 77.0705 483.953
-98 -58.7993 472.088
-98 -18.965 489.94
-98 122.051 459.808
-98 79.0534 472.952
-98 101.806 483.961
-98 76.1269 442.911
-98 114.98 456.114
-98 64.9426 467.088
47 -47.1707 493.296
-98 -22.0978 492.977
-98 12.9772 447.09
-98 -43.207 490.081
-98 108.872 467.898
-98 -37.0974 452.153
-98 111.885 461.964
-98 46.22 460.939
-98 115.021 480.137
-98 33.8458 447.912
-98 89.8312 442.078
-98 14.8165 463.985
-98 -18.9388 495.091
-98 31.0172 489.077
-98 106.051 470.891
-98 -26.2351 467.023
-98 -6.70057 451.179
-98 -34.9974 461.111
-98 45.8608 462.72
-98 113.092 464.815
47 -43.0166 503.044
-98 -17.9801 470.905
-98 -16.2031 461.872
-98 -12.9459 462.943
-98 -34.976 479.908
-98 -43.9592 453.047
-98 78.7842 459.193
-98 81.1139 477.111
-98 -2.08044 491.77
-98 -13.0989 481.159
-98 85.8741 453.221
-98 22.0689 455.086
-98 85.9765 444.921
-98 -53.9202 451.089
-98 97.0503 481.982
-98 84.0301 465.936
-98 110.183 458.165
47 -42.1738 494.137
-98 -21.0151 482.002
-98 83.013 474.933
-98 114.931 461.865
-98 -66.8951 500.984
-98 -64.0556 441.152
-98 -52.0308 486.044
-98 48.7998 455.964
-98 -67.9504 489.136
-98 9.02378 482.086
-17.4492 -1.18405 451.629
-98 8.01019 468.787
-98 24.8824 491.01
-98 103.059 476.922
-98 118.348 461.012
-98 -23.0944 451.618
-98 85.9095 475.989
-98 -33.8937 491.924
-98 -48.9475 447.032
-98 90.364 450.181
-98 110.189 469.021
-98 77.3673 458.18
-98 74.9632 483.943
-98 -64.0872 497.992
-98 35.9064 478.649
-98 -7.17455 479.778
-17.2239 3.03041 452.06
-98 3.7899 479.275
-98 -11.0162 485.046
-98 -9.99352 474.093
-98 -61.9377 473.981
-98 -47.1792 452.96
-98 59.758 441.967
-98 -9.0234 486.144
-98 60.3528 485.084
-98 -45.1532 484.342
-98 94.9149 473.931
-98 39.1719 446.055
-98 -9.11352 444.1
-98 45.7431 448.049
-98 58.8639 441.962
-98 123.914 473.063
-98 18.1021 470.042
-98 -46.3624 495.063
-46.034 -61.1118 490
-44.0275 64.6651 490
-45.0784 0.0447793 490
-42.7568 111.288 490
-98 73.9211 487.819
-98 94.0228 482.929
47 -34.0734 496.72
-98 -25.909 442.168
-98 -67.3536 456.922
-98 -57.2202 451.489
-98 -23.0529 478.938
-98 -61.0089 476.903
-98 7.95701 445.031
-98 -15.8609 476.938
-98 -14.9027 454.199
-98 -60.9719 456.085
-98 -3.02749 490.03
-98 105.871 480.308
-98 13.7358 460.739
-98 -52.036 492.246
-98 -46.0721 459.232
-98 18.1647 454.01
-98 119.16 449.982
-98 -26.9288 445.023
-98 -27.0057 448.97
-98 93.0351 453.863
-98 121.089 465.034
-98 61.9319 461.006
-98 -54.0554 502.338
-98 67.8334 462.14
-98 -50.1975 446.058
-98 79.9076 479
-98 92.3063 464.066
-45.9378 -58.0211 490
-43.0742 107.933 490
-43.6714 67.7219 490
-44.7393 5.05124 490
-98 77.1572 474.081
-98 106.948 452.032
-98 23.9778 489.018
-98 100.193 484.82
-98 -59.9301 480.211
-17.3674 2.06339 457.967
-98 13.0389 458.166
-17.3787 1.99795 470.702
-98 13.9525 454.163
-98 97.9204 471.208
-98 -65.9961 477.801
-98 44.8817 490.098
-98 74.0659 474.025
-98 -49.0506 485.197
-98 80.9532 471.076
-98 -16.797 487.035
-98 -39.0759 499.975
-98 93.2996 452.919
-98 5.96507 454.025
-98 107.918 452.002
-98 -7.97833 484.146
-16.7502 5.03556 470.968
-98 8.02546 491.082
-98 25.3165 486.817
-98 31.1138 454.873
47 -34.1522 493.229
-98 -28.8467 481.236
-98 92.9606 445.151
-98 30.0775 464.07
-98 -19.1993 448.389
-98 -66.1279 501.006
-98 114.117 465.096
-98 -46.5969 462.417
-98 -46.8729 480.148
-98 65.2788 479.973
-98 27.0601 476.92
-98 -45.7276 442.888
-98 10.1759 455.164
-98 65.8908 448.961
-98 -8.02138 494.2
-98 -62.755 482.107
-98 85.1318 448.264
-98 -50.0492 483.094
-98 69.4028 469.985
-98 117.04 452.145
-98 117.998 442.823
-98 18.0286 471.859
-98 -52.7509 488.246
-98 98.9357 451.284
-98 107.232 481.177
-98 11.1189 455.886
-98 -59.0111 467.048
-98 5.26113 464.956
-98 113.278 470.958
-98 108.629 479.777
-98 110.075 465.145
-98 73.089 473.676
-98 99.845 454.759
-98 37.7301 458.918
-98 -27.0737 468.865
-98 112.889 473.175
-98 117.927 467.052
-98 -52.8667 491.047
-98 -18.0146 447.199
-98 -20.0451 448.743
-98 97.7424 483.657
-98 -21.0085 455.807
-98 109.283 481.867
-98 30.8836 493.093
-98 -10.9312 461.011
-42.7542 74.0772 490
-43.8528 38.2988 490
-44.8277 -24.8492 490
-98 77.79 476.664
-98 -12.2671 458.778
-98 -66.9902 485.14
-98 -18.0858 469.761
-98 -52.0203 481.951
-98 20.8465 461.27
-98 60.0208 474.871
-98 -2.01623 495.925
-98 -49.8414 446.844
-98 67.7993 482.146
-98 -53.9572 479.733
-98 -36.1177 445.857
-98 95.8447 485.819
-75.2914 -19.9202 490
-74.0327 42.89 490
-72.9485 105.948 490
-98 102.929 444.168
-98 -29.1933 487.901
-98 -12.301 455.087
-98 48.8474 464.985
-52.1209 47.949 490
-51.162 107.926 490
-53.0141 -14.9653 490
-43.9766 38.7398 490
-45.395 -26.1921 490
-42.6399 73.0272 490
-98 79.1291 474.061
-98 85.7503 481.195
-98 34.8116 482.079
-98 -37.0928 469.091
-98 -18.1632 453.039
-98 -51.1458 474.899
-98 -47.0009 478.903
-98 -13.9402 485.893
-98 94.7967 448.988
-98 11.0342 480.019
-98 31.041 459.874
-98 -8.6386 469.816
-98 -3.93229 483.956
-98 -36.0324 443.235
-98 -23.0972 492.92
-98 -4.8629 494.787
-98 -5.10862 455.048
-98 -17.1777 449.996
-98 121.986 442.106
-98 92.9999 478.112
-98 39.9672 475.27
-98 122.014 473.937
-98 34.1743 448.852
-98 -3.08579 461.075
-98 63.1418 448.995
-98 -20.2528 467.072
-98 -54.1146 495.132
-98 -36.2247 444.179
-98 65.8237 481.036
-98 -41.8849 441.066
-98 22.8935 480.083
-98 63.0755 452.796
-98 -40.0249 467.029
-98 66.0192 463.122
-98 -9.24555 440.971
-98 -32.2261 470.038
-98 3.05517 471.039
-98 -64.1188 459.877
-98 83.0106 462.039
-98 -18.0206 476.954
-98 91.0354 465.013
-98 44.9681 443.112
-57.4008 100.135 490
-59.0561 -29.9939 490
-58.028 32.8154 490
-98 90.7836 455.873
47 -35.1398 496.816
-98 -26.7659 444.075
-98 -22.7472 471.937
-98 80.9808 469.217
-98 106.655 462.186
-98 -28.9884 499.039
-98 -54.2452 448.9
-96.9649 108.096 440
-97.9168 44.9767 440.224
-98 -4.13194 453.053
-98 -32.1113 483.995
-98 111.154 440.966
-98 -21.0011 498.089
-98 68.8989 482.894
-98 15.9718 466.978
-98 99.8928 471.239
-98 83.7326 473.964
-98 45.5532 473.011
-98 72.1223 454.851
-98 66.7777 442.987
-98 -39.8781 498.12
-98 5.98764 477.995
-14.8366 -4.19814 450
-98 48.9883 443.575
-98 85.8803 467.869
-98 -31.1914 464.223
-98 10.0653 496.185
-98 4.93322 468.974
-98 -36.8848 453.841
-98 102.983 462.743
-98 74.8538 446.349
-98 -23.7643 489.269
-98 22.3309 470.592
-98 97.9675 483.061
-98 -40.063 468.874
47 -59.9629 493.053
-98 -27.0224 459.107
-98 86.9256 446.034
-98 119.191 463.963
-98 33.9715 455.122
-98 -25.8372 485.217
-98 39.7091 474.201
-98 -13.6882 497.894
-98 45.0008 492.249
-98 2.10982 467.924
-98 -33.271 495.923
-98 4.09723 446.04
-98 17.0701 493.67
-98 84.1188 481.074
-98 -35.9195 475.009
-98 28.1482 471.21
-18.0305 -39.0621 490
-17.0581 24.0719 490
-98 17.9872 450.062
-98 -23.9536 467.014
-98 -21.9472 466.817
-98 74.1606 441.98
-98 -60.952 471.171
-98 21.1292 442.072
-98 40.9873 480.845
-98 -41.9415 490.781
-98 -32.9083 460.991
-98 -1.9298 465.929
47 -48.9637 501.096
-98 -19.6153 487.804
-98 -18.1935 458.036
-98 61.0368 474.175
-98 -65.2577 446.079
-98 78.0041 468.639
-98 -63.0517 495.318
-98 35.8277 465.204
-98 -2.03879 495.296
-98 -66.0301 482.093
-98 47.1045 458.053
-98 85.0189 470.766
-98 -61.8574 463.962
-98 35.0975 478.018
-98 -51.7663 463.205
-98 -31.1572 461.169
-98 33.8621 450.922
-98 -11.6868 460.114
-98 63.0992 478.88
-98 -47.9606 491.077
-98 21.7242 451.79
-98 -42.0263 474.991
-98 -23.8655 469.097
-98 -31.0003 466.883
-98 61.8827 482.99
-98 -42.1242 466.919
-98 73.0454 443.154
-98 -7.04371 476.248
-98 7.90929 489.129
-98 66.7148 472.782
-98 -18.909 443.91
-98 -32.2295 485.812
-98 -21.1193 494.807
-98 -26.2153 449.229
-98 -58.121 442.877
-98 72.2577 464.134
-98 87.0438 474.106
-98 -17.8336 454.709
-98 12.1902 488.854
-98 -20.8957 463.841
-98 64.6487 466.09
-98 -5.00763 452.927
-98 31.9735 459.127
-98 2.33131 464.771
-98 80.1157 462.089
47 -41.1053 496.973
-98 -28.9963 445.051
-98 120.041 443.262
-98 66.1428 457.747
-98 17.9953 455.78
-98 -35.8218 445.117
-98 -15.7641 467.771
-98 -63.2066 450.197
-21.8352 -17.863 490
-35.0926 -23.955 490
-20.0832 111.928 490
-32.6277 105.997 490
-21.2215 49.0547 490
-34.1986 38.7887 490
-98 -31.8234 444.978
-98 24.0758 471.923
-98 -28.0605 472.103
-98 94.1661 441.241
-46.677 -49.8532 490
-45.8967 15.1425 490
-98 -8.22036 468.06
-98 23.1209 490.042
-98 59.1462 472.1
-98 -9.08641 463.129
-98 -22.1972 480.96
-98 75.8353 467.056
-98 116.092 456.956
-98 0.820226 443.244
-98 -8.04797 485.023
-98 -41.0249 480.991
-98 -36.851 459.986
-98 39.7658 477.083
-98 69.101 465.994
-98 -21.084 444.062
-98 1.16679 488.989
-98 9.0272 476.761
-98 -41.5322 470.121
-98 72.1965 447.158
-98 95.8712 479.284
-98 9.9305 478.978
-98 -23.123 498.223
-98 -4.25103 442.15
-98 21.8688 472.009
-98 106.068 448.846
47 -35.9544 491.012
-98 -18.9188 492.76
-98 3.85015 490.117
-34.9555 -54.2069 490
-23.0761 -46.984 490
-32.9374 72.1266 490
-22.2118 15.9841 490
-33.8255 9.1437 490
-20.8784 78.8094 490
-98 -59.1803 496.819
-98 82.9212 448.947
-98 21.1932 470.94
-98 -20.9624 497.077
-98 79.9413 481.971
-98 74.8918 472.919
-98 80.9298 445.982
-98 23.046 477.137
-98 94.9039 463.013
-98 -57.2178 457.179
-98 121.676 480.747
-57.2793 98.8417 490
-58.0418 34.0932 490
-59.1038 -31.4467 490
-98 92.0279 476.13
-98 22.9121 494.037
-98 101.895 468.195
-98 -22.9953 484.895
-98 -35.2129 492.166
-98 32.127 455.938
-98 80.9404 478.584
-98 -7.98485 462.097
47 -48.8254 495.754
-98 -19.825 482.93
-98 -47.3049 461.012
-98 18.97 495.048
-98 112.926 444.847
-98 -41.0089 466.198
-98 -15.1212 445.102
-98 75.0106 466.744
-98 18.1364 469.031
-98 -61.927 486.995
-98 -44.8855 481.723
-98 2.11591 452.96
-98 -54.1297 482.987
-98 -14.0784 452.963
-98 -54.7949 488.911
-98 -36.9223 443.754
-98 106.122 477.102
-98 115.042 455.144
-98 115.906 482.898
-17.0327 3.96984 458.314
-98 19.0943 460.833
-98 34.132 466.95
-98 81.0602 474.191
-98 24.8522 472.92
-98 93.8373 485.906
-98 -35.9848 498.835
-98 38.8591 487.708
-98 39.1425 443.796
-98 -26.2208 497.049
-98 -34.9312 491.261
-98 -17.9904 497.997
-98 109.073 478.876
-98 72.6703 470.03
-98 -52.137 474.09
-98 0.92961 480.037
-98 91.2324 448.888
-98 70.8806 483.193
-98 -55.8719 474.908
-98 86.8711 444.039
-98 36.7871 467.971
-98 -34.1927 457.081
-98 -60.4278 493.282
-98 -30.9519 451.004
-98 67.1666 463.124
-98 -34.9186 467.157
-98 -31.0375 468.063
-98 -30.0696 455.195
-83 124.939 442.03
-98 118.732 465.217
-98 23.8296 475.077
-98 -59.8886 484.038
-98 -17.2183 446.854
-98 69.8224 451.019
-98 -5.12036 467.115
-98 9.15227 457.681
-98 -11.0415 489.135
-98 -45.9042 468.97
-98 45.0471 464.078
-98 -9.8397 445.226
-98 67.9454 475.195
-98 -67.1239 476.789
-98 33.0439 457.081
-98 64.0294 476.998
-98 -51.3496 462.986
-98 37.0362 469.129
-98 -26.0362 443.916
-98 -2.32546 477.443
47 -34.0699 494.045
-98 -28.956 478.039
-98 -65.9128 466.317
-98 -28.0251 492.615
-98 -57.1872 462.994
-98 47.0997 449.995
-98 84.1269 468.146
-98 96.9301 480.107
-98 95.9662 469.95
-98 -50.1227 481.878
-98 -19.0842 460.144
-98 103.21 461.825
-98 112.447 450.486
-56.8842 86.0977 490
-57.93 23.0757 490
-58.9857 -40.0867 490
-98 76.7373 482.227
-98 51.1761 449.979
-98 -24.0805 464.781
-98 -52.8208 476.035
-98 44.8984 474.026
-83 102.265 455.173
-98 -7.94441 472.969
-98 -8.16991 452.024
-98 70.0349 488.992
-98 37.0421 446.09
46.8966 -36.9478 504.923
-98 -24.0345 448.047
-98 83.139 470.039
-98 -0.958916 477.819
-98 119.967 470.051
-98 5.24119 479.142
-98 13.8009 481.083
-98 -29.0048 475.082
-98 62.0936 470.017
-98 -65.7387 495.049
-98 -39.7953 444.166
-98 85.7917 459.755
-98 -46.1779 482.16
-98 118.809 475.016
-98 -55.0406 445.986
-98 81.9269 480.08
-98 98.0462 463.874
-98 0.00100842 496.773
-98 15.9926 491.702
-98 -42.9677 474.951
-98 -21.8978 445.983
-98 -17.8218 484.684
-98 18.1123 479.18
-98 -57.2435 456.024
-98 108.607 470.755
-98 47.4355 476.004
-98 -50.1498 441.942
-17.0786 -3.77038 472.843
-98 62.1314 462.795
-98 -37.1543 489.312
-98 -64.0416 445.094
-98 -36.1621 491.203
-98 1.19049 450.023
-98 116.215 450.205
-98 -30.78 450.04
-98 27.1201 467.4
-98 97.8751 450.978
-98 100.835 459.685
-98 -6.01177 482.912
-98 -13.2353 444.841
-98 25.8565 460.009
-98 -39.7311 464.026
-98 -57.1651 474.056
-98 37.9865 481.731
-98 -26.1439 468.958
-15.9557 112.399 490
-16.6339 46.7293 490
-98 117.147 450.932
-98 18.9211 468.254
-98 -38.027 443.938
-98 18.1791 490.127
-98 23.9253 448.069
-98 -46.0215 454.985
-98 21.2783 492.877
-98 25.7695 478.154
-98 117.128 441.984
-98 -32.272 447.235
-98 26.8987 446.904
-98 45.8747 484.289
-98 -4.04542 458.026
-98 52.191 474.358
-98 -53.2622 483.008
-98 47.044 504.187
-98 49.9861 440.96
-98 48.1271 450.947
-98 59.2362 448.86
-98 -44.1405 475.901
-98 44.9732 452.087
-98 61.1441 446.942
-98 112.2 467.123
-98 27.9367 484.907
-98 6.21547 483.042
-98 -11.2281 461.906
-98 -33.2555 468.846
-98 -26.8791 486.945
-98 -14.0549 482.597
-98 -68.02 477.979
-98 88.9273 469.858
-98 102.853 441.043
-98 -26.968 475.075
-98 -9.13491 494.083
-98 -53.76 488.018
-98 -56.0748 496.98
-98 -31.0128 491.027
-98 83.0957 459.994
-98 -9.95292 472.144
-98 -16.002 441.12
-34.9716 -60.8633 490
-22.9072 -45.9236 490
-33.9611 4.09341 490
-32.9555 68.9388 490
-22.3893 19.4704 490
-21.0009 83.9379 490
-98 -61.8781 494.854
-98 -63.0292 458.052
-98 37.1794 490.113
-98 -42.8151 496.835
-98 7.99112 445.921
-98 16.3673 478.102
-98 98.8615 443.891
-98 -67.1545 467.921
-98 120.008 458.753
-98 -58.0951 471.107
-98 -25.7694 481.993
-98 98.854 445.877
-98 -12.8636 482.347
-98 1.9808 476.122
-98 81.1255 448.805
-16.9771 4.21379 452.121
-98 18.9702 466.838
-98 -30.0068 480.73
-98 108.976 455.086
-98 40.8948 486.066
-98 97.8687 442.889
-98 50.0958 477.969
-98 80.9567 476.055
-98 100.856 483.803
-98 -29.1378 495.29
-98 25.9822 444.74
-98 -0.886603 486.845
-98 102.985 475.004
46.9735 -59.7363 504.815
-98 -26.9226 479.31
-98 108.112 471.096
-98 -2.88021 471.932
-98 -63.0048 455.984
-98 24.9262 465.133
-98 89.0339 442.305
-17.1041 0.127413 450.092
-98 7.08914 478.751
-98 117.191 459.129
-98 16.1207 473.858
-98 33.0851 443.788
-98 40.0317 461.764
-98 89.8138 487.001
-98 58.9178 482.161
-98 -45.7629 479.813
-98 66.7124 453.248
-98 -21.028 474.008
-98 -62.0027 498.808
-98 85.9797 455.777
-98 73.8747 469.001
-98 9.02013 456.949
-16.1121 113.28 490
-17.1094 49.9323 490
-98 122.003 452.014
-98 73.047 456.154
-98 47.2985 460.819
-98 -36.0957 482.053
-98 42.9919 467.078
-98 29.0214 445.1
-98 -65.8962 488.046
-98 67.9801 454.03
-98 102.773 474.107
-98 44.9405 496.112
-98 77.3262 478.199
-22.9988 -56.0292 490
-32.8721 78.9764 490
-33.586 17.6589 490
-20.869 69.9035 490
-98 -53.3464 498.204
-98 68.1057 487.244
-98 50.999 485.797
-98 -51.951 488.138
-98 38.2282 463.182
-98 23.9657 468.904
-98 61.8466 483.982
-98 3.89862 467.25
-98 121.034 440.894
-98 -13.1001 467.8
-98 -33.8742 466.975
-98 -60.996 479.911
-98 17.9106 464.029
-98 81.0219 452.909
-98 111.168 448.326
-98 -1.82844 464.739
-98 71.1359 463.03
-98 78.6578 479.637
-98 -40.0022 482.051
-98 50.0651 481.958
-98 110.86 446.143
-98 -40.0643 447.918
-98 108.84 472.896
-98 49.7969 446.997
-98 12.9704 448.984
-98 28.0861 482.974
-98 30.9636 466.973
-98 -29.9264 482.951
-98 -31.1276 496.064
-98 -26.0804 494
-98 -11.0383 465.098
-98 78.0328 446.849
-98 -48.6216 501.871
-98 -49.2057 443.141
-98 64.0718 475.961
-98 65.8993 464
-98 -18.0875 472.747
-98 48.91 467.765
-98 -28.0374 454.866
-98 -37.8906 441.306
-98 -30.7604 495.059
-98 119.063 461.817
-98 112.271 456.245
-98 -22.1431 450.944
-98 27.8913 459.2
-98 117.849 458.198
-98 80.0919 459.128
-98 8.1684 461.822
-98 38.9482 479.908
47 -42.1937 496.21
-98 -20.8623 491.857
-98 124.024 462.614
-98 -51.0673 481.92
-98 111.861 471.146
-98 -50.1621 488.059
-98 21.1773 462.28
-98 76.8408 469.83
-98 -52.9099 461.524
-83 96.7614 443.873
-98 121.999 446.008
-98 -36.9897 495.987
-98 6.92904 491.403
-98 2.36101 472.273
-98 -53.8853 444.394
-15.0213 -30.293 490
-14.1841 35.1781 490
-13.0867 96.0725 490
-98 47.168 468.931
-98 -19.1696 470
-98 74.9374 485.999
-98 75.7158 447.095
-98 4.79159 473.955
-98 25.0004 471.925
-98 25.9091 481.121
-98 63.0694 463.87
-98 19.2139 447.969
-98 -53.0771 489.114
-98 -31.0163 453.083
-98 -59.2509 463.828
-98 120.931 444.049
-98 50.8557 490.014
-98 23.1283 484.96
-98 102.017 475.846
-98 -64.254 494.039
-98 -65.0735 503.907
-98 -61.9992 441.11
-98 -0.91552 449.033
-98 63.0886 488.938
-98 32.0149 463.104
-98 1.84424 473.91
-98 -20.1283 455.052
-98 -61.0492 499.941
-98 1.00551 448.057
-98 116.264 451.731
-98 28.7167 480.962
-98 -3.9336 492.078
-98 -15.0266 477.035
-98 98.9999 449.098
-98 10.1353 441.895
-52.7571 56.1206 490
-53.7432 -8.77404 490
-52.0863 120.972 490
-98 -62.8608 448.17
-15.1388 -2.0597 450
-96.9239 114.068 440
-97.8581 46.9077 440.106
-98 47.7829 502.737
-98 -62.1676 453.098
-98 -12.8796 477.786
-98 -0.0319979 463.797
-98 -9.02314 445.954
-98 -46.0875 486.83
-98 -55.7237 442.961
-98 -58.6016 503.227
-98 -38.632 447.079
-98 12.0962 490.941
-76.0939 -65.0426 490
-73.171 99.0007 490
-74.9047 -31.2846 490
-74.0196 34.1257 490
-98 1.92923 466.17
-98 -50.1989 454.214
-98 91.9742 467.105
-98 47.0767 451.819
-98 -61.6766 498.359
-98 78.9305 467.839
-98 3.94344 444.893
-98 17.0744 495.432
-98 -65.7581 469.112
-98 99.0157 478.089
-98 70.9004 468.797
-98 -32.917 490.093
-98 16.0315 481.782
-98 41.0404 490.748
-98 22.8463 460.47
-98 -39.9419 489.804
-98 -57.9197 485.054
-98 -4.88362 460.938
-98 69.1075 445.884
-98 79.8287 485.09
-98 -64.8228 483.216
-98 -6.82151 492.258
-98 -2.92144 489.055
-98 19.1059 469.932
-98 -39.9842 450.942
-98 38.9783 478.957
-98 -49.9554 455.302
-47.2295 -17.0554 490
-45.0287 108.898 490
-46.0148 46.0227 490
-98 63.1051 468.121
-98 -19.9333 469.962
-98 118.097 460.226
-98 -7.99764 486.005
-17.3657 2.08538 469.06
-98 14.0995 448.108
-98 -42.9515 495.848
-98 49.9513 463.097
-98 -4.25579 479.257
-98 -56.2997 484.589
-98 -59.9542 447.136
-98 20.6591 457.057
-98 -35.0152 451.973
-98 51.9953 449.933
-98 -14.1491 485.165
-98 81.9408 447.219
-98 106.877 485.153
-98 -32.1062 481.074
-98 18.9194 474.146
-98 108.873 444.037
-98 20.1588 471.012
-98 -44.2159 483.077
-98 22.0107 475.882
-98 -56.0165 490.738
47 -47.3732 494.528
-98 -22.8487 444.176
-98 10.1506 481.117
-98 -53.9021 489.836
-98 75.0236 447.899
-98 -60.9691 462.938
-98 51.9233 490.91
-98 95.1174 453.843
-98 -41.1328 485.991
-98 17.0346 475.038
-98 -54.9541 474.012
46.9468 -35.9599 504.782
-98 -18.8674 467.245
-98 -31.8705 461.055
-98 97.1732 485.156
-98 83.5912 462.877
-98 -32.9896 465.98
47 -37.158 491.13
-98 -24.1598 493.729
-98 31.9087 455.049
-98 7.23243 483.003
-98 76.6667 480.018
-98 48.9812 471.784
-98 -36.7472 457.11
-98 -55.9357 447.056
-98 118.128 468.886
-98 62.0229 476.931
-98 14.9572 487.27
-98 -64.0617 455.744
-98 65.0089 462.044
-98 -10.8835 452.051
-98 59.0735 448.092
-98 121.044 469.801
-98 47.8476 480.912
-98 33.0219 472.025
-98 1.87879 450.816
-98 -31.043 468.877
-98 -66.0099 444.994
-98 -32.054 464.944
-98 -42.0257 446.085
-98 -1.25975 470.89
-98 9.00202 446.972
-98 74.7126 449.075
-98 -23.0452 461.888
-98 50.1663 468.894
-98 -30.029 483.831
-98 -1.06912 464.066
47 -34.2858 498.958
-98 -28.9504 478.765
-98 -11.942 450.912
-98 -60.9247 475.999
-98 117.065 460.828
-98 78.1106 457.331
-98 33.2916 464.199
-98 -12.9953 443.905
-98 26.064 446.179
-98 -41.1034 463.947
-98 -8.74471 463.94
-98 3.12233 470.178
-98 66.856 489.552
-98 25.0125 452.952
-98 -18.1549 478.07
-98 -52.8123 478.179
-98 -25.9935 473.967
-98 51.7291 447
-98 27.2475 485.094
-98 30.9948 461.88
-98 -5.86503 481.983
-98 -32.8347 450.103
-98 65.6962 442.939
-98 -19.7799 466.002
-98 34.1686 457.202
-17.2474 2.88789 471.941
-98 16.9389 448.941
-98 14.9837 491.736
-98 0.863846 469.785
-98 -50.8015 484.917
-98 34.0227 483.334
-98 17.9102 444.936
-98 20.7313 471.911
-98 28.1501 455.915
-98 46.8999 492.002
-98 67.0017 480.827
-16.5228 5.73931 454.956
-98 8.96472 473.129
-18.1436 -43.0122 490
-16.0728 82.8895 490
-98 99.1841 477.284
-98 -45.1366 454.806
-98 18.8094 473.055
-98 -37.0539 470.044
-98 27.9687 468.857
-98 71.0461 449.947
-98 93.0289 442.173
-98 -36.0877 462.186
-98 -13.076 473.648
-98 47.7886 481.963
-98 -9.98544 453.849
-15.0611 -25.9889 490
-13.8567 39.0536 490
-13.1816 100.002 490
-98 42.8806 470.801
-98 -54.8749 458.787
-98 -47.9104 470.829
-98 -42.0089 448.766
-98 60.7918 484.12
-98 -57.1108 447.945
-98 -6.08303 492.088
-98 -25.8564 447.893
-98 -16.8682 492.812
-98 114.225 478.868
-98 22.9977 455.115
-98 -61.9644 486.217
-98 -45.9292 467.906
-98 -49.7414 484.244
-98 -32.8008 471.655
-98 -66.0525 490.997
-98 -63.1294 471.026
47 -42.0024 502.834
-98 -20.9267 471.153
-98 -49.8726 501.979
-98 48.1955 449.119
-98 -66.0368 480.946
-98 38.2241 470.027
-98 45.1008 454.969
-98 9.92598 462.997
-98 37.1267 448.026
-98 80.9274 467.874
-55.953 116.255 490
-56.771 50.9104 490
-58.028 -14.0764 490
-98 124.113 471.867
-98 -64.8796 495.849
-98 120.848 462.921
-98 27.9268 457.022
-98 121.183 449.041
-98 70.9886 486.282
-98 5.98787 481.214
-98 23.755 482.788
-98 27.7844 481.809
-98 -26.0337 482.91
-98 -39.2504 498.074
-98 64.2946 449.969
-98 17.1551 490.119
-98 3.71754 449.636
-98 -26.7124 446.277
-98 -20.0169 463.959
-98 -16.8824 447.774
-98 -29.395 493.008
-98 47.1628 463.91
-98 86.9885 456.01
-98 11.8516 467.002
-98 122.132 455.922
-98 -63.8759 499.214
-98 -39.2523 452.991
-98 5.024 441.905
-98 -66.0596 489.92
-98 -47.157 473.863
-98 91.1105 465.937
-98 63.0319 460.105
-98 -10.9555 476.762
-98 -24.0337 477.989
-98 -59.0263 478.124
-98 47.8269 492.024
-98 -63.8271 495.008
-53.331 -48.0436 490
-51.9777 17.0606 490
-98 -16.022 481.984
-98 -65.0434 493.069
-98 29.9558 475.068
-98 73.9526 482.967
-98 75.7591 461.72
-98 121.043 450.873
-98 105.829 484.038
-98 99.9288 470.001
-98 -41.93 479.145
-98 -63.816 467.946
-98 20.0238 445.198
-98 -28.9611 488.832
-98 42.9792 460.901
-98 -33.6436 474.042
-98 66.0904 472.987
-98 7.37547 465.059
-98 -30.9996 482.083
-17.4707 0.869477 469.188
-98 11.0736 450.009
-98 -64.0936 476.831
-98 0.135809 451.823
-98 94.0432 486.872
-98 -53.1889 469.248
-98 102.949 468.047
-98 41.0236 473.125
-98 -38.8956 483.039
-98 -41.7423 450.967
-98 8.96734 492.011
-98 65.951 471.121
-98 1.87945 496.269
-98 116.461 469.412
-98 -46.7972 455.21
-98 -37.8397 463.868
-98 -36.975 498.948
-98 -57.0772 489.263
-98 39.7398 485.256
-98 29.76 483.147
-98 9.95591 491.128
-98 109.1 458.239
-98 -58.9538 498.821
-98 -11.1216 444.011
-98 76.0614 488.664
-98 -64.9111 481.972
-98 -29.0781 491.056
-98 61.1905 443.032
-98 -27.9473 461.128
-98 35.067 452.964
-98 -29.9192 459.034
-98 60.829 455
-98 -27.0181 453.014
-98 -14.8159 458.069
-98 90.114 440.977
-98 -28.3024 495.975
-98 59.3215 455.803
-98 72.9776 469.249
-98 28.0211 479.132
-98 6.87919 462.887
-98 -1.98031 474.024
-98 59.9552 466.896
-98 48.1184 473.988
-98 109.709 462.708
-98 27.9551 486.927
-98 15.9069 472.185
-98 -16.1189 474.955
-98 120.406 448.941
-98 66.9044 484.997
-98 32.0519 474.251
-98 65.8687 469.898
-98 59.8608 469.967
-98 -38.8277 452.122
-98 117.889 451.989
-98 -64.9666 469.007
-98 106.199 441.934
-98 49.0211 484.118
-98 -13.1032 477.164
-98 -30.1981 496.321
-98 -1.75713 478.557
-98 -28.0634 455.984
-98 -19.7585 471.892
-98 92.9863 473
-98 -41.9741 460.693
-98 -66.9381 488.771
-98 50.9519 488.876
-98 63.9234 463.973
-83 114.169 476.857
-98 57.7819 452.994
-98 -58.0658 476.913
-98 -14.1586 456.909
-98 80.8939 484.905
47 -42.871 501.911
-98 -17.9082 493.962
-22.2021 -1.09726 484.079
-98 -42.9045 448.03
-98 85.0102 466.674
-98 -1.03392 495.182
-98 112.976 454.935
-98 51.8477 474.637
-98 -4.22333 481.002
-98 47.4723 466.163
-98 73.9373 452.798
-98 -63.7528 443.128
-98 25.1693 483.958
-98 -44.9155 497.014
-98 104.059 458.073
-98 110.055 471.779
-98 36.9977 484.332
-98 -56.1234 495.992
-98 78.9359 452.962
-98 118.032 467.714
-98 33.9993 444.915
-98 -7.19225 452.791
-98 38.7978 446.866
-98 -3.85609 486.047
-98 69.9663 454.172
-98 -14.01 473.973
-98 67.808 478.041
-98 -30.8495 455.938
-98 107.931 485.067
-98 -6.91572 442.906
-98 -46.9035 453.994
-98 121.062 483.096
-98 -61.893 475.061
-98 -9.79148 459.068
-98 10.1335 460.881
-98 -32.8121 476.178
-16.5181 5.7524 461.556
-98 8.93536 476.218
-98 113.092 472.173
-98 123.848 470.255
-98 -42.836 478.077
-98 101.049 461.095
-98 -32.1991 484.927
-98 73.9191 461.94
-98 92.8943 445.96
-98 73.9395 445.894
-98 22.1061 463.868
-98 -39.962 477.101
-98 -47.9764 478.224
-98 93.6931 462.656
-98 37.0701 463.14
-98 90.0259 471.996
-35.3219 -43.7792 490
-22.905 -60.96 490
-33.9507 18.7805 490
-32.7833 86.1171 490
-20.8496 69.2254 490
-98 -51.9145 478.985
-98 47.0869 488.847
-98 -52.9972 493.862
-98 30.9768 475.162
-98 -33.841 498.999
-98 -52.9008 445.97
-98 68.7437 454.605
-98 106.253 468.956
-98 87.1076 460.781
-98 51.9346 461.245
-98 33.8779 491.071
-98 -29.9977 488.084
-73.136 112.124 490
-75.1167 -17.9768 490
-73.8295 45.1323 490
-98 20.8377 445.832
-98 -3.47862 459.931
-98 61.1402 470.912
-98 -32.9856 486.178
-98 -3.16399 461.769
-98 79.9653 450.966
-98 -55.8745 487.999
-98 8.9675 465.002
-98 50.7449 445.117
-98 2.95004 464.16
-73.9397 41.7166 490
-73.0012 107.025 490
-75.0081 -22.7383 490
-98 120.841 470.917
-98 50.0413 489.841
-98 -63.8714 461.997
47 -36.0415 495.953
-98 -16.0504 443.699
-98 85.025 450.894
-98 79.6393 480.239
-98 -12.1671 443.742
-98 79.8182 485.972
-98 -51.984 462.087
-98 -48.802 449.165
-98 -62.0399 482.509
-98 109.013 469.091
-98 67.0576 451.062
-98 85.9697 444.104
-98 12.9013 461.943
-98 -63.2816 466.04
-98 -15.9154 454.947
3.88022 47.0685 490
4.83644 120.871 490
-98 -31.5536 456.878
-98 113.95 445.8
-98 -44.0558 479.747
-98 -36.1064 449.109
-98 20.8972 443.836
-98 73.7727 472.964
-98 -48.1733 448.161
-98 27.0858 488.818
-98 118.168 480.001
-98 -47.2446 477.104
-98 111.904 471.954
-98 -6.95872 475.113
-98 -26.9406 471.131
-98 -45.2264 472.881
-98 72.8414 464.862
-98 -41.9497 485.107
-98 46.92 447.946
-98 -53.0498 496.008
-98 -8.9033 447.094
-98 -54.698 457.103
-98 -9.92681 467.978
-98 17.7435 454.749
-98 -68.1344 479.724
-98 15.0141 485.853
-98 50.9292 486.999
-98 1.86201 448.184
-98 60.2691 484.156
-18.2579 -55.2676 490
-16.4119 71.4229 490
-98 2.0099 450.148
-98 59.7684 479.646
-98 -1.20852 476.952
-98 8.15077 458.721
-98 39.0033 478.148
-98 -62.1669 491.816
-98 -54.1893 465.037
-98 101.885 444.11
-98 95.1754 447.931
-98 34.2602 466.368
-98 17.907 466.21
-98 69.1515 458.297
-98 -55.8071 475.79
-98 12.0728 452.909
-98 67.042 486.918
-17.4017 1.81711 452.017
-98 12.7131 464.111
-98 -36.1706 465.163
-98 89.0473 469.065
-98 21.0245 491.058
-98 -22.0453 489.971
-98 73.8254 484.165
-98 -3.96339 474.962
-98 -35.9809 447.754
-98 62.8426 469.866
-98 77.0179 447.997
-98 -13.2061 453.092
-45.8342 -66.9363 490
-43.7851 62.9116 490
-44.9615 -1.97086 490
-43.3269 112.852 490
-98 72.3645 488.941
-98 0.868445 481.133
-98 -59.9767 470.807
-98 -33.8262 465.848
-98 35.0041 442.066
-98 -16.3263 442.241
-98 71.081 450.949
-98 95.1479 478.161
-98 -5.89406 490.907
-98 95.1402 472.185
-98 -67.9164 476.929
-98 -18.2418 457.288
-98 112.087 447.9
-98 88.1813 445.871
-98 15.0845 447.943
-98 -42.0331 461.988
-98 31.0162 486.182
-98 5.94091 457.089
-98 21.9083 486.001
-98 32.9859 462.24
-98 -55.9874 483.002
-98 91.7833 453.123
-98 -55.0308 451.014
-98 -53.7611 467.148
-98 67.8979 445.052
-98 3.81715 454.928
-98 5.06582 463.081
-98 80.1379 468.1
-98 65.8273 456.01
-98 72.9245 444.931
-98 -59.1371 456.109
-98 -62.9333 477.22
-98 -49.9945 464.876
-98 116.925 453.017
-98 83.1291 443.956
-59.0465 16.8431 490
-58.0231 82.1161 490
-60.0798 -9.13614 490
-98 33.0284 466.777
-98 102.101 442.041
-98 106.974 453.878
-98 13.1305 451.214
-98 -50.1197 468.177
-98 84.0563 469.809
-98 96.8696 477.933
-98 1.99213 472.643
-98 -13.017 485.104
-98 -12.8473 458.91
-98 -68.1312 491.79
-98 120.038 455.907
-98 4.81503 457.127
-98 -5.03493 474.083
-16.5743 5.59786 466.138
-98 7.03063 494.045
-98 -22.9658 473.92
-98 62.9352 463.085
-98 -48.2092 453.006
-98 -27.8448 446.948
-98 -54.8498 487.203
-98 -51.826 496.85
-98 -58.1441 475.151
-98 24.085 493.836
-98 -48.0161 496.047
-98 -66.7739 470.222
-98 99.9158 461.015
-98 -1.08956 488.904
-98 3.16553 466.089
-98 9.96246 486.058
-98 -39.8011 457.131
-98 36.9574 470.05
-98 26.819 483.689
-98 -29.9847 481.982
-98 118.807 474.265
-98 8.80441 478.114
-98 4.0916 488.023
-98 13.4551 491.007
-98 -46.9037 482.075
-98 -45.0126 486.699
-98 -10.021 448.839
-98 46.0923 491.002
-98 3.80173 465.959
-98 -46.0017 453.813
-98 19.9417 466.031
-98 -23.1282 462.979
-98 80.173 487.192
-98 110.116 444.742
-98 32.1532 485.15
-98 14.7526 473.248
-98 8.97998 469.924
-98 78.9424 463.925
-98 22.793 470.721
-98 7.05233 455.993
-98 -22.9839 446.882
-98 100.051 447.943
-98 -22.8791 461.156
-98 82.4328 459.234
-98 -3.8766 473.891
-98 50.0255 486.078
-98 -35.8631 466.668
-98 73.1484 483.931
-98 -54.8211 472.936
-98 109.982 454.009
-17.8422 -25.913 490
-17.2504 34.719 490
-16.0161 100.023 490
-98 99.8791 457.118
-98 30.1062 480.99
-98 70.1894 459.081
-98 88.8472 459.158
-98 -58.0187 453.027
-98 -12.2438 498.103
-98 48.2318 472.04
-98 -60.0231 453.339
-98 69.9134 456.826
-98 83.2489 453.341
-98 -6.08161 448.174
-98 62.1391 488.17
-98 -68.2927 453.268
-98 0.957237 464.912
-98 83.0415 448.105
-23.1379 -68.8701 490.117
-34.6312 -35.9773 490
-21.3164 61.0099 490
-19.8376 124.092 490
-32.9366 94.0063 490
-34.1826 26.9071 490
-98 -43.6493 446.869
-98 100.061 440.855
-98 113.053 482.841
-98 -21.1913 472.975
-98 49.2445 462.126
-98 100.891 459.01
-98 -62.1488 490.063
-98 63.9901 457.137
-17.4575 -1.05824 462.07
-98 5.87511 494.148
-98 -24.0784 492.819
-98 24.122 452.824
-98 -30.2372 494.451
-98 72.0229 444.959
-98 -39.0569 460.972
-98 64.9952 478.02
-98 -59.9582 494.842
-98 30.9747 440.892
-98 102.158 481.191
-98 -16.9328 498.089
-17.0042 4.09996 458.856
-98 18.9087 457.97
-98 11.9976 472.188
-98 36.247 476.915
-98 88.1314 457.852
-98 -62.834 451.061
-98 7.84716 455.927
-98 -41.1361 442.888
-98 91.1217 483.965
-98 10.7619 473.25
-98 -16.9993 493.977
-98 65.9165 488.222
-98 -0.0731652 467.08
-98 63.8663 453.852
-98 68.873 459.968
-98 -7.21898 458.833
-98 -60.0025 483.047
-98 -19.0135 482.815
-98 -43.2974 472.942
-98 -62.324 449.923
-98 77.9984 475.658
-98 70.7281 458.97
-98 25.0886 461.795
-98 79.0281 462.175
-98 -29.9711 449.947
-98 73.0757 461.023
-98 -44.9974 493.937
-98 39.1248 485.039
-57.8591 57.8858 490
-56.9579 123.067 490
-58.729 -7.0747 490
-98 -5.93459 466.981
-98 -9.98837 481.051
-17.7792 -29.993 490
-16.9621 31.2797 490
-16.476 96.1602 490
-98 103.781 455.141
-98 -51.0052 447.006
-98 -9.84695 477.007
-98 24.0624 456.224
-98 17.9145 456.908
-98 75.1517 486.705
-67.1979 -58.2742 490
-64.9213 68.1313 490
-65.8922 5.16719 490
-98 87.0407 479.099
-98 51.9119 456.978
-17.4893 -0.203864 456.786
-98 7.17462 481.85
-98 15.2356 461.028
-98 -12.8187 448.994
-98 77.9415 479.115
-98 39.4265 464.808
-98 -5.10191 450.281
-98 10.1791 466.942
-98 98.7534 484.102
-98 -55.8369 471.131
-98 -37.7579 492.019
-98 23.1128 472.895
-98 99.8879 469.047
-98 96.2217 480.053
-98 70.9969 443.088
-17.3643 2.07711 470.098
-98 13.9333 455.284
-98 -57.9138 472.092
-98 98.9406 474.078
-98 104.052 462.099
-98 -27.2015 477.094
-98 31.1348 451.249
-98 -2.14759 447.796
-98 76.8101 484.866
-98 -15.9169 493.97
-98 -9.07521 492.241
-98 39.8854 450.983
-98 73.1872 462.905
-98 -31.0248 485.995
-16.801 4.85861 455.093
-98 10.0387 473
-98 39.8518 458.21
-98 74.307 471.98
-98 -10.2326 446.068
-98 -67.9624 469.98
-98 19.0237 475.963
-98 -60.0503 460.855
-98 -35.3088 481.777
-98 3.194 485.084
-98 -11.8676 473.235
-98 -53.1793 501.243
-98 95.045 483.904
-98 -0.877551 484.86
-98 50.1754 458.063
-98 30.8617 493.726
-98 -38.0632 498.039
-98 62.7083 471.027
-98 -50.8138 469.164
-98 93.1549 461.934
-98 101.894 478.91
-98 -18.9355 480.11
-98 -46.9391 463.147
-98 42.7956 459.933
-98 -12.9544 442.925
-98 121.998 454.993
-98 -51.118 464.031
-98 -49.0694 492.943
-98 36.0839 470.824
-98 19.853 452.216
-98 79.8459 440.872
-98 -67.9783 471.067
-98 -30.9638 462.904
-98 -31.178 453.974
-98 -65.2336 488.075
-98 97.0272 458.033
-98 33.2762 475.174
-98 102.091 465.093
-98 -43.8945 497.064
-98 -14.1399 496.109
-98 -68.0303 483.083
-98 89.0026 467.036
-98 14.7728 494.039
-98 -59.2701 486.067
-98 21.9693 488.957
-52.9514 -41.8471 490
-52.0563 22.9401 490
-50.8944 101.23 490
-98 114.049 461.102
-98 -8.07846 460.695
-98 41.4027 489.067
-98 25.1578 492.212
-98 -58.8178 471.092
-98 21.9232 493.915
-98 68.9693 461.124
-98 -37.1253 461.905
-98 23.984 465.149
-98 51.0717 485.07
-98 81.0185 456.799
-98 -60.7551 464.132
-98 65.7975 448.331
-98 89.9061 466
-98 -20.2058 451.287
-98 65.1202 444.929
-98 -17.0132 483.326
-58.0824 24.2548 490
-59.0329 -40.8581 490
-56.8374 84.9847 490
-98 -50.6911 480.736
-98 -36.9355 475.978
-98 -18.3533 440.938
-98 45.0439 444.763
-98 43.0639 477.865
-98 48.7519 446.109
-53.0772 30.0957 490
-51.9164 94.5713 490
-53.9732 -31.0404 490
-98 13.9851 488.816
-98 -0.166166 472.956
-98 -56.8818 480.007
-98 -57.955 454.939
-98 72.2644 450.256
-98 -1.93478 457.028
-98 59.1827 469.725
-98 -58.744 449.893
-98 -7.95343 483.082
-98 75.941 466.014
-98 5.93908 464.944
-98 83.0252 466.907
-98 4.91836 447.806
-98 87.8925 459.183
-98 67.0639 488.054
-98 30.0614 488.945
-98 -38.1823 479.003
-98 76.1561 465.179
-98 -27.1484 480.224
-98 -32.0327 450.933
-98 42.9818 479.006
-98 36.2728 469.021
-98 62.1365 458.695
-98 -42.0387 480.173
-98 -11.9985 444.919
-98 -36.4875 441.978
-98 -23.2626 493.98
-98 -47.018 444.756
-98 74.8967 457.122
-98 -54.0046 454.889
-98 -13.0341 442.076
-98 -28.9221 485.154
-98 19.5776 464.905
-98 85.9143 464.061
-98 77.1114 476.832
-98 25.9666 460.805
-98 16.1556 471.057
-98 -45.105 493.143
-98 90.0519 454.812
-98 -14.6421 490.895
-98 71.9113 477.833
-98 -8.01144 495.172
-98 45.8856 496.072
-98 -60.7861 489.943
3.05921 -33.0526 490
3.73843 29.8879 490
-98 -47.9097 455.615
-98 8.15893 453.966
-98 118.037 446.085
-98 48.9568 460.765
-98 40.7512 472.166
-98 -3.91658 459.978
-98 94.8835 451.283
-98 -4.36192 455.798
-98 59.9659 471.269
-98 1.193 479.035
-98 -5.97046 494.009
-98 106.038 442.965
-98 45.967 453.208
-98 118.048 482.214
-98 -58.0068 479.78
-98 -42.9966 480.053
-98 -13.2823 460.078
-98 49.9871 471.741
-98 101.119 451.964
-44.9944 -43.9692 490
-43.0161 91.0395 490
-44.2028 21.1313 490
-98 60.8464 474.928
-98 27.0364 471.877
-98 90.948 446.182
-98 110.136 469.799
-98 84.9387 468.17
-98 29.1177 476.082
-98 119.932 477.915
-98 -24.1965 450.935
-52.9766 -46.7191 490
-52.0885 16.1396 490
-51.0515 75.9877 490
-98 6.9236 448.951
-98 81.9827 442.665
-98 -60.8129 447.161
-98 114.108 467.967
-98 43.1268 475.801
47 -42.9395 493.832
-98 -18.0242 486.349
-98 -61.9858 464.901
-98 -59.9646 464.177
-98 45.2787 487.228
-98 106.935 463.049
-98 15.8093 456.631
-98 10.1851 452.018
-98 16.0643 477.366
-98 -18.0534 444.18
-98 17.1112 472.04
-98 62.2257 476.001
-98 -53.8316 452.876
-98 83.8995 466.967
-98 97.0064 481.077
-98 11.979 473.098
-98 -21.0246 470.044
-98 -56.1673 500.198
-98 72.1701 459.972
-98 -50.1906 449.967
-98 -43.7602 459.985
-98 -22.1432 482.937
-98 -18.8485 449.954
-98 34.9767 484.994
-98 95.8347 461.769
-98 38.9512 476.978
-98 -36.1092 463.078
-98 -65.9554 474.948
-98 -56.9487 461.192
-98 7.86964 466.683
2.85086 -37.9644 490
-98 -45.0109 468.243
-98 80.1824 447.097
-98 -14.9113 491.974
-98 13.1436 487.264
-98 68.8572 452.944
-98 -41.2221 476.164
-98 -42.9581 462.124
-98 -42.9531 484.037
-98 108.109 482.878
-98 -31.0975 457.977
-98 -8.07428 458.832
-98 -35.1142 482.735
-98 9.06672 453.989
-98 27.2821 464.084
-98 14.7858 491.276
-98 -59.251 478.848
-98 -56.2661 462.231
-98 80.0444 451.788
-98 6.85051 454.88
-98 94.8551 445.921
-98 -5.17717 496.362
-98 59.9212 458.939
-98 81.1064 444.074
-98 52.9387 490.839
-98 70.9782 485.207
-98 -42.5376 487.737
-98 13.9533 487.849
-98 41.0304 458.186
-98 -3.93924 451.915
-98 -44.0115 454.716
-98 107.797 467.331
-98 -59.2239 489.12
-98 64.8881 464.025
47 -40.0888 498.961
-98 -23.1435 481.137
-98 -57.0765 465.725
-98 45.8096 468.151
-98 -3.94371 484.885
-98 17.2216 457.831
-98 -65.9596 450.769
47 -33.7408 504.012
-98 -29.0952 455.921
-98 -65.9062 446
-98 3.27737 455.972
-98 -33.9582 480.044
-98 -67.0844 502.704
-98 -13.9352 496.915
-98 -54.9699 460.175
-98 111.047 449.148
-98 2.05895 448.906
-98 43.0058 459.086
-98 -46.6782 455.715
-98 92.1952 457.892
47 -48.0024 491.863
-98 -15.086 486.109
-98 -39.1422 491.995
-98 -64.5185 485.975
-98 66.211 487.199
-98 69.9316 442.071
-98 99.8156 472.541
-98 83.0467 457.948
-98 -33.8434 497.02
-98 6.89206 447.994
-98 -47.1413 441.024
-98 24.2837 463.079
-98 36.8485 484.891
-98 18.6089 471.109
-98 108.192 481
-98 -8.07614 490.964
-98 23.2199 478.908
-98 -57.0482 470.048
-98 -34.163 485.937
-98 -3.96026 457.087
-98 63.951 475.041
-98 23.1477 446.122
-98 94.9431 476.225
-98 -16.0609 459.773
-98 78.1192 480.743
-98 80.7851 472.801
-98 35.1119 448.914
-98 49.1257 485.298
-98 119.016 478.008
47 -35.0136 496.005
-98 -25.9609 483.89
-98 104.223 446.884
-98 81.9051 459.789
-98 -11.7929 483.263
-98 -66.1139 452.01
-98 -60.9322 469.118
-98 -40.1787 484.935
-98 38.9046 457.266
-98 -68.0425 473.881
-98 104.264 466.951
-98 97.7738 480
-98 -4.11389 469.988
-98 26.9939 476.09
-98 -61.9929 451.215
-98 71.7136 485.149
-98 -67.9838 465.802
-98 -45.8813 443.533
-98 -8.19022 450.313
-98 24.3321 493.188
-15.0347 114.794 490
-16.0708 51.1213 490
-98 6.06772 458
-98 -30.2431 445.05
-98 22.0077 459.878
-98 26.8864 469.211
-98 -31.7427 452.137
-98 10.6958 459.886
-98 -60.8242 495.097
-98 122.09 462.816
-18.312 -50.8613 490
-16.26 75.4809 490
-98 13.7257 478.081
-98 -1.85813 444.659
-98 109.016 478.086
-98 38.1266 489.163
-98 107.792 448.019
-98 65.8337 480.094
-98 42.7513 482.929
-98 -46.0691 460.933
-98 -61.0022 479.054
-98 -14.9042 444.147
-98 -56.9059 440.732
-98 -26.9508 473.104
-98 26.2032 482.537
-98 49.8429 470.165
-98 9.896 467.959
-98 74.9986 443.277
-98 -44.94 474.961
-98 67.997 478.856
-98 27.1871 462.12
-98 103.255 471.86
-98 -45.8773 479.173
-98 113.923 454.092
-98 79.8167 454.142
-98 9.04515 490.191
-98 26.1028 456.088
-98 -52.8949 485.977
-98 19.8574 467.378
-98 -5.18257 478.942
-98 -1.46024 472.339
-98 -50.214 456.033
-98 -21.6793 472.045
-98 109.762 461.297
-98 98.153 461.833
-98 -19.5367 498.774
-98 37.0632 454.943
-98 69.9477 458.267
-98 79.1059 459.656
-98 95.9138 456.13
-98 10.1227 482.76
-98 3.87522 483.042
-98 119.26 448.752
-98 -44.843 477.719
-98 -0.888554 463.026
-98 6.23741 461.914
-98 68.7867 467.87
-98 7.06004 484.984
-98 69.8764 455.772
-98 99.0441 465.924
-98 -20.0757 474.723
-98 105.966 451.933
-98 -65.9585 449.896
-98 68.8096 479.011
-98 -24.0298 474.078
-98 99.1429 453.815
-98 30.9504 481.997
-98 87.9449 470.047
-98 66.8916 464.999
-15.9248 -65.9873 490
-14.0502 57.0119 490
-12.7192 121.951 490
-98 49.1918 462.923
-98 39.8381 468.796
-98 -67.8063 471.894
-98 90.9083 453.898
-98 -40.0297 472.25
-98 121.92 466.89
-98 78.1574 443.737
-98 80.1039 466.986
-98 70.0379 460.936
-98 -64.9268 467.17
-98 27.8882 478.34
-98 -41.0443 443.814
-98 79.9782 465.222
-35.0246 -32.908 490
-20.9976 56.1324 490
-20.1514 120.921 490
-34.2699 31.9917 490
-32.5962 97.2721 490
-98 -34.9693 494.069
-98 72.0344 478.861
-98 -27.8824 460.065
-98 98.3155 447.127
-98 92.2658 475.088
-98 30.9603 464.104
-98 115.321 465.103
47 -47.0979 493.949
-98 -22.092 493.938
-44.9254 -52.0519 490
-42.9243 98.6328 490
-43.8168 13.0978 490
-98 85.0435 443.129
-98 51.2617 476.03
-98 18.1448 492.689
-98 13.8899 487.014
-98 -19.0211 448.825
-76.0024 -67.1035 490
-73.8458 36.1544 490
-73.3421 96.8429 490
-74.9577 -29.2068 490
-98 0.147126 464.945
-98 42.8467 489.962
-98 37.0208 442.946
-98 -54.1094 456.113
-98 30.0653 467.844
-98 84.6524 465.535
-98 -66.1057 458.8
-98 -30.0004 457.099
-98 94.8656 466.015
-98 56.2324 472.188
-98 -16.8532 468.942
-98 74.185 453.793
-98 12.8933 456.148
-98 32.9305 469.27
-68.1732 -65.0779 490
-66.175 54.0247 490
-64.7946 114.928 490
-67.2908 -10.8394 490
-98 -32.6035 485.001
-16.8001 4.86096 459.804
-98 7.92847 495.954
-98 96.8965 470.875
47 -35.0145 491.141
-98 -25.7182 499.113
-18.7972 -67.164 490
-15.9762 124.016 490
-16.8084 59.0607 490
-98 121.268 454.934
-98 -56.7999 465.002
-98 -60.9423 491.91
-98 -41.811 468.045
-16.152 115.952 490
-16.9166 50.8596 490
-98 51.7772 473.21
-98 -39.1531 494.926
-98 -51.8099 493.896
47 -34.9726 493.064
-98 -25.8937 480.951
-98 -60.111 444.168
-98 4.18851 470.822
-98 -9.10259 451.019
-98 1.94901 478.026
-98 61.9056 451.046
-98 -17.8743 460.121
-98 14.9271 484.83
-98 -34.9971 492.906
-98 89.9848 451.096
-98 -43.0266 465.057
-98 52.0942 500.304
